x y z
-28.636654 64.991496 63.795956
-28.636654 67.503533 62.342473
-28.636654 70.015570 60.888974
-28.636654 72.527607 59.435475
-28.636654 75.039644 57.981979
-28.636654 77.551681 56.528483
-28.636654 80.063718 55.074968
-28.636654 82.575755 53.621568
-28.636654 85.087792 52.167646
-28.636654 87.599829 50.714720
-28.636654 90.111865 49.261093
-28.636654 92.623902 47.808115
-28.636654 95.135939 46.352727
-28.636654 97.647976 44.900788
-28.636654 100.160013 43.443278
-28.636654 102.672050 41.988525
-28.636654 105.184087 40.540038
-28.636654 107.696124 39.086515
-28.636654 110.208161 37.632989
-28.636654 112.720198 36.179501
-28.636654 115.232235 34.726099
-28.636654 117.744271 33.271988
-28.636654 120.256308 31.817269
-28.636654 122.768345 30.371313
-28.636654 125.280382 28.903312
-28.636654 127.792419 27.795386
-28.636654 130.304456 24.962213
-28.636654 132.816493 24.824716
-28.636654 135.328530 24.149701
-28.636654 137.840567 24.183635
-28.636654 140.352604 23.967198
-28.636654 142.864641 23.119422
-28.636654 145.376677 22.256749
-28.636654 147.888714 21.132988
-28.636654 150.400751 19.536380
-28.636654 152.912788 18.111588
-28.636654 155.424825 16.665226
-28.636654 157.936862 15.216489
-28.636654 160.448899 13.762223
-25.909485 -83.218682 124.074596
-25.909485 -80.706645 127.607452
-25.909485 -78.194608 124.669399
-25.909485 -75.682571 129.009577
-25.909485 -73.170534 129.098634
-25.909485 -70.658497 118.710911
-25.909485 -68.146460 115.308401
-25.909485 -65.634423 113.094146
-25.909485 -63.122386 115.968359
-25.909485 -60.610349 112.088669
-25.909485 -58.098312 109.282458
-25.909485 -55.586275 118.702028
-25.909485 -53.074239 107.719700
-25.909485 -50.562202 103.332941
-25.909485 -48.050165 111.845812
-25.909485 -45.538128 105.083690
-25.909485 -43.026091 96.303231
-25.909485 -40.514054 107.389129
-25.909485 -38.002017 110.239905
-25.909485 -35.489980 110.476884
-25.909485 -32.977943 100.948659
-25.909485 -30.465906 97.801035
-25.909485 -27.953869 111.232689
-25.909485 -25.441833 107.858682
-25.909485 -22.929796 100.077008
-25.909485 -20.417759 101.560539
-25.909485 -17.905722 101.225665
-25.909485 -15.393685 107.472328
-25.909485 -12.881648 107.098462
-25.909485 -10.369611 105.374122
-25.909485 -7.857574 106.483414
-25.909485 -5.345537 92.287080
-25.909485 -2.833500 92.778705
-25.909485 -0.321463 97.273346
-25.909485 2.190573 96.841190
-25.909485 4.702610 95.440113
-25.909485 7.214647 94.389516
-25.909485 9.726684 94.030486
-25.909485 12.238721 92.588468
-25.909485 14.750758 91.233176
-25.909485 17.262795 90.641520
-25.909485 19.774832 88.991966
-25.909485 22.286869 88.481535
-25.909485 24.798906 87.060848
-25.909485 27.310943 85.597764
-25.909485 29.822980 84.143043
-25.909485 32.335016 82.689495
-25.909485 34.847053 81.236018
-25.909485 37.359090 79.782543
-25.909485 39.871127 78.328712
-25.909485 42.383164 76.875663
-25.909485 44.895201 75.421402
-25.909485 47.407238 73.967639
-25.909485 49.919275 72.514970
-25.909485 52.431312 71.061305
-25.909485 54.943349 69.608076
-25.909485 57.455386 68.154497
-25.909485 59.967422 66.701032
-25.909485 62.479459 65.247541
-25.909485 64.991496 63.794043
-25.909485 67.503533 62.340545
-25.909485 70.015570 60.887049
-25.909485 72.527607 59.433552
-25.909485 75.039644 57.980055
-25.909485 77.551681 56.526556
-25.909485 80.063718 55.073143
-25.909485 82.575755 53.619181
-25.909485 85.087792 52.172043
-25.909485 87.599829 50.688932
-25.909485 90.111865 49.261216
-25.909485 92.623902 47.859136
-25.909485 95.135939 46.326917
-25.909485 97.647976 44.891812
-25.909485 100.160013 43.445426
-25.909485 102.672050 41.989246
-25.909485 105.184087 40.538144
-25.909485 107.696124 39.084586
-25.909485 110.208161 37.631104
-25.909485 112.720198 36.177601
-25.909485 115.232235 34.724115
-25.909485 117.744271 33.270621
-25.909485 120.256308 31.817132
-25.909485 122.768345 30.364259
-25.909485 125.280382 28.905269
-25.909485 127.792419 27.449061
-25.909485 130.304456 25.969080
-25.909485 132.816493 24.555617
-25.909485 135.328530 23.085559
-25.909485 137.840567 21.462440
-25.909485 140.352604 20.845023
-25.909485 142.864641 20.744808
-25.909485 145.376677 17.488256
-25.909485 147.888714 20.170306
-25.909485 150.400751 19.326816
-25.909485 152.912788 18.674529
-25.909485 155.424825 16.669866
-25.909485 157.936862 15.206384
-25.909485 160.448899 13.771209
-23.182316 -83.218682 123.690370
-23.182316 -80.706645 123.730067
-23.182316 -78.194608 131.637240
-23.182316 -75.682571 128.302373
-23.182316 -73.170534 123.275772
-23.182316 -70.658497 127.875617
-23.182316 -68.146460 120.464823
-23.182316 -65.634423 120.098946
-23.182316 -63.122386 122.817317
-23.182316 -60.610349 112.009578
-23.182316 -58.098312 110.141387
-23.182316 -55.586275 115.789948
-23.182316 -53.074239 118.655630
-23.182316 -50.562202 115.028901
-23.182316 -48.050165 117.066055
-23.182316 -45.538128 103.553817
-23.182316 -43.026091 115.076154
-23.182316 -40.514054 108.345641
-23.182316 -38.002017 105.058924
-23.182316 -35.489980 109.383102
-23.182316 -32.977943 105.811613
-23.182316 -30.465906 108.053433
-23.182316 -27.953869 105.863981
-23.182316 -25.441833 108.116667
-23.182316 -22.929796 109.579217
-23.182316 -20.417759 102.061662
-23.182316 -17.905722 106.394741
-23.182316 -15.393685 107.424008
-23.182316 -12.881648 106.805388
-23.182316 -10.369611 108.983803
-23.182316 -7.857574 90.607691
-23.182316 -5.345537 90.448953
-23.182316 -2.833500 94.485695
-23.182316 -0.321463 87.191309
-23.182316 2.190573 84.627640
-23.182316 4.702610 89.900362
-23.182316 7.214647 94.993181
-23.182316 9.726684 93.894103
-23.182316 12.238721 92.583765
-23.182316 14.750758 91.103559
-23.182316 17.262795 89.394374
-23.182316 19.774832 88.268005
-23.182316 22.286869 88.732101
-23.182316 24.798906 87.032645
-23.182316 27.310943 85.592706
-23.182316 29.822980 84.140993
-23.182316 32.335016 82.687586
-23.182316 34.847053 81.234082
-23.182316 37.359090 79.780584
-23.182316 39.871127 78.327085
-23.182316 42.383164 76.873591
-23.182316 44.895201 75.420121
-23.182316 47.407238 73.966560
-23.182316 49.919275 72.512786
-23.182316 52.431312 71.060132
-23.182316 54.943349 69.606079
-23.182316 57.455386 68.152608
-23.182316 59.967422 66.699115
-23.182316 62.479459 65.245616
-23.182316 64.991496 63.792119
-23.182316 67.503533 62.338622
-23.182316 70.015570 60.885125
-23.182316 72.527607 59.431628
-23.182316 75.039644 57.978134
-23.182316 77.551681 56.524623
-23.182316 80.063718 55.071075
-23.182316 82.575755 53.614849
-23.182316 85.087792 52.177643
-23.182316 87.599829 50.747627
-23.182316 90.111865 49.410346
-23.182316 92.623902 45.497509
-23.182316 95.135939 46.785472
-23.182316 97.647976 45.504980
-23.182316 100.160013 43.456303
-23.182316 102.672050 41.986782
-23.182316 105.184087 40.539086
-23.182316 107.696124 39.082741
-23.182316 110.208161 37.629047
-23.182316 112.720198 36.175666
-23.182316 115.232235 34.722181
-23.182316 117.744271 33.268686
-23.182316 120.256308 31.815171
-23.182316 122.768345 30.361697
-23.182316 125.280382 28.908223
-23.182316 127.792419 27.454752
-23.182316 130.304456 26.001228
-23.182316 132.816493 24.547179
-23.182316 135.328530 23.104118
-23.182316 137.840567 21.635485
-23.182316 140.352604 20.256281
-23.182316 142.864641 19.093693
-23.182316 145.376677 17.298435
-23.182316 147.888714 11.574832
-23.182316 150.400751 12.225722
-23.182316 152.912788 16.488999
-23.182316 155.424825 18.688371
-23.182316 157.936862 14.202383
-23.182316 160.448899 13.671133
-20.455146 -83.218682 124.305518
-20.455146 -80.706645 125.943675
-20.455146 -78.194608 123.540922
-20.455146 -75.682571 126.827679
-20.455146 -73.170534 124.309249
-20.455146 -70.658497 120.308129
-20.455146 -68.146460 118.689415
-20.455146 -65.634423 117.285961
-20.455146 -63.122386 114.077060
-20.455146 -60.610349 110.135204
-20.455146 -58.098312 110.460259
-20.455146 -55.586275 111.041939
-20.455146 -53.074239 108.319576
-20.455146 -50.562202 105.776555
-20.455146 -48.050165 108.540264
-20.455146 -45.538128 108.447018
-20.455146 -43.026091 102.324014
-20.455146 -40.514054 111.991906
-20.455146 -38.002017 103.898943
-20.455146 -35.489980 115.508503
-20.455146 -32.977943 100.168739
-20.455146 -30.465906 91.473487
-20.455146 -27.953869 110.376552
-20.455146 -25.441833 108.925701
-20.455146 -22.929796 100.702962
-20.455146 -20.417759 99.807718
-20.455146 -17.905722 103.813452
-20.455146 -15.393685 108.318288
-20.455146 -12.881648 106.871656
-20.455146 -10.369611 106.506318
-20.455146 -7.857574 95.226245
-20.455146 -5.345537 92.107071
-20.455146 -2.833500 93.667444
-20.455146 -0.321463 86.951546
-20.455146 2.190573 85.653942
-20.455146 4.702610 90.126251
-20.455146 7.214647 94.659927
-20.455146 9.726684 94.007983
-20.455146 12.238721 92.576317
-20.455146 14.750758 91.135724
-20.455146 17.262795 89.815265
-20.455146 19.774832 88.707687
-20.455146 22.286869 89.051211
-20.455146 24.798906 87.007097
-20.455146 27.310943 85.595200
-20.455146 29.822980 84.139061
-20.455146 32.335016 82.685661
-20.455146 34.847053 81.232160
-20.455146 37.359090 79.778661
-20.455146 39.871127 78.325164
-20.455146 42.383164 76.871666
-20.455146 44.895201 75.418171
-20.455146 47.407238 73.964675
-20.455146 49.919275 72.511171
-20.455146 52.431312 71.057685
-20.455146 54.943349 69.604181
-20.455146 57.455386 68.150686
-20.455146 59.967422 66.697189
-20.455146 62.479459 65.243692
-20.455146 64.991496 63.790195
-20.455146 67.503533 62.336698
-20.455146 70.015570 60.883201
-20.455146 72.527607 59.429704
-20.455146 75.039644 57.976206
-20.455146 77.551681 56.522725
-20.455146 80.063718 55.068897
-20.455146 82.575755 53.614078
-20.455146 85.087792 52.178334
-20.455146 87.599829 51.351418
-20.455146 90.111865 45.084080
-20.455146 92.623902 46.544057
-20.455146 95.135939 40.324352
-20.455146 97.647976 42.597892
-20.455146 100.160013 45.340725
-20.455146 102.672050 42.159534
-20.455146 105.184087 40.493900
-20.455146 107.696124 39.081529
-20.455146 110.208161 37.628555
-20.455146 112.720198 36.174233
-20.455146 115.232235 34.720262
-20.455146 117.744271 33.266752
-20.455146 120.256308 31.813262
-20.455146 122.768345 30.359765
-20.455146 125.280382 28.906270
-20.455146 127.792419 27.452774
-20.455146 130.304456 25.999283
-20.455146 132.816493 24.545675
-20.455146 135.328530 23.092659
-20.455146 137.840567 21.639102
-20.455146 140.352604 20.184507
-20.455146 142.864641 18.717452
-20.455146 145.376677 16.881305
-20.455146 147.888714 13.891582
-20.455146 150.400751 12.904701
-20.455146 152.912788 12.024983
-20.455146 155.424825 9.588855
-20.455146 157.936862 12.643552
-20.455146 160.448899 12.012473
-17.727977 -83.218682 124.289331
-17.727977 -80.706645 130.637114
-17.727977 -78.194608 129.162257
-17.727977 -75.682571 123.994535
-17.727977 -73.170534 126.578075
-17.727977 -70.658497 120.854506
-17.727977 -68.146460 127.748698
-17.727977 -65.634423 122.038719
-17.727977 -63.122386 121.863974
-17.727977 -60.610349 117.451658
-17.727977 -58.098312 111.583208
-17.727977 -55.586275 111.064212
-17.727977 -53.074239 108.669133
-17.727977 -50.562202 106.505488
-17.727977 -48.050165 107.346473
-17.727977 -45.538128 112.948251
-17.727977 -43.026091 105.830701
-17.727977 -40.514054 112.183371
-17.727977 -38.002017 112.564501
-17.727977 -35.489980 101.985407
-17.727977 -32.977943 104.258990
-17.727977 -30.465906 105.998536
-17.727977 -27.953869 110.455684
-17.727977 -25.441833 107.726650
-17.727977 -22.929796 100.390991
-17.727977 -20.417759 101.469006
-17.727977 -17.905722 107.139230
-17.727977 -15.393685 108.772315
-17.727977 -12.881648 109.938314
-17.727977 -10.369611 90.903995
-17.727977 -7.857574 97.944921
-17.727977 -5.345537 99.801776
-17.727977 -2.833500 89.869988
-17.727977 -0.321463 86.779822
-17.727977 2.190573 89.049440
-17.727977 4.702610 93.232113
-17.727977 7.214647 93.725354
-17.727977 9.726684 94.544751
-17.727977 12.238721 92.620731
-17.727977 14.750758 91.111197
-17.727977 17.262795 89.677759
-17.727977 19.774832 88.112770
-17.727977 22.286869 87.695417
-17.727977 24.798906 87.056591
-17.727977 27.310943 85.596929
-17.727977 29.822980 84.137936
-17.727977 32.335016 82.683732
-17.727977 34.847053 81.230229
-17.727977 37.359090 79.776737
-17.727977 39.871127 78.323240
-17.727977 42.383164 76.869743
-17.727977 44.895201 75.416246
-17.727977 47.407238 73.962749
-17.727977 49.919275 72.509253
-17.727977 52.431312 71.055755
-17.727977 54.943349 69.602260
-17.727977 57.455386 68.148762
-17.727977 59.967422 66.695265
-17.727977 62.479459 65.241768
-17.727977 64.991496 63.788270
-17.727977 67.503533 62.334776
-17.727977 70.015570 60.881271
-17.727977 72.527607 59.427790
-17.727977 75.039644 57.974279
-17.727977 77.551681 56.520818
-17.727977 80.063718 55.066755
-17.727977 82.575755 53.625460
-17.727977 85.087792 52.020654
-17.727977 87.599829 52.787173
-17.727977 90.111865 45.731040
-17.727977 92.623902 45.258857
-17.727977 95.135939 42.543450
-17.727977 97.647976 39.833422
-17.727977 100.160013 37.788652
-17.727977 102.672050 38.418904
-17.727977 105.184087 41.148321
-17.727977 107.696124 39.058885
-17.727977 110.208161 37.578435
-17.727977 112.720198 36.167194
-17.727977 115.232235 34.718190
-17.727977 117.744271 33.264929
-17.727977 120.256308 31.811466
-17.727977 122.768345 30.357837
-17.727977 125.280382 28.904342
-17.727977 127.792419 27.450850
-17.727977 130.304456 25.997353
-17.727977 132.816493 24.543851
-17.727977 135.328530 23.090344
-17.727977 137.840567 21.636750
-17.727977 140.352604 20.184176
-17.727977 142.864641 18.751999
-17.727977 145.376677 17.391388
-17.727977 147.888714 14.270572
-17.727977 150.400751 12.786152
-17.727977 152.912788 11.488171
-17.727977 155.424825 9.964014
-17.727977 157.936862 8.331930
-17.727977 160.448899 9.625068
-15.000808 -83.218682 125.471680
-15.000808 -80.706645 127.118730
-15.000808 -78.194608 124.822186
-15.000808 -75.682571 126.519762
-15.000808 -73.170534 123.579377
-15.000808 -70.658497 119.876614
-15.000808 -68.146460 120.844797
-15.000808 -65.634423 122.083381
-15.000808 -63.122386 118.329287
-15.000808 -60.610349 115.613273
-15.000808 -58.098312 115.791442
-15.000808 -55.586275 111.081478
-15.000808 -53.074239 109.766899
-15.000808 -50.562202 108.697805
-15.000808 -48.050165 106.253267
-15.000808 -45.538128 104.670781
-15.000808 -43.026091 115.100800
-15.000808 -40.514054 106.716867
-15.000808 -38.002017 110.326079
-15.000808 -35.489980 110.329194
-15.000808 -32.977943 94.760289
-15.000808 -30.465906 107.199133
-15.000808 -27.953869 110.780285
-15.000808 -25.441833 106.572169
-15.000808 -22.929796 102.641670
-15.000808 -20.417759 107.900784
-15.000808 -17.905722 109.186347
-15.000808 -15.393685 108.623772
-15.000808 -12.881648 104.387442
-15.000808 -10.369611 102.090576
-15.000808 -7.857574 104.018074
-15.000808 -5.345537 90.721517
-15.000808 -2.833500 89.191297
-15.000808 -0.321463 85.390341
-15.000808 2.190573 90.236429
-15.000808 4.702610 91.289739
-15.000808 7.214647 86.007001
-15.000808 9.726684 84.009754
-15.000808 12.238721 92.468737
-15.000808 14.750758 91.134801
-15.000808 17.262795 89.630222
-15.000808 19.774832 88.042013
-15.000808 22.286869 86.945371
-15.000808 24.798906 87.337309
-15.000808 27.310943 85.566860
-15.000808 29.822980 84.134604
-15.000808 32.335016 82.681748
-15.000808 34.847053 81.228316
-15.000808 37.359090 79.774814
-15.000808 39.871127 78.321316
-15.000808 42.383164 76.867819
-15.000808 44.895201 75.414323
-15.000808 47.407238 73.960826
-15.000808 49.919275 72.507329
-15.000808 52.431312 71.053832
-15.000808 54.943349 69.600335
-15.000808 57.455386 68.146838
-15.000808 59.967422 66.693341
-15.000808 62.479459 65.239845
-15.000808 64.991496 63.786344
-15.000808 67.503533 62.332860
-15.000808 70.015570 60.879334
-15.000808 72.527607 59.425891
-15.000808 75.039644 57.972344
-15.000808 77.551681 56.518870
-15.000808 80.063718 55.065638
-15.000808 82.575755 53.616391
-15.000808 85.087792 52.184155
-15.000808 87.599829 50.187479
-15.000808 90.111865 46.308176
-15.000808 92.623902 40.895166
-15.000808 95.135939 39.359008
-15.000808 97.647976 42.862924
-15.000808 100.160013 37.119882
-15.000808 102.672050 38.561904
-15.000808 105.184087 38.948649
-15.000808 107.696124 37.166829
-15.000808 110.208161 38.162306
-15.000808 112.720198 36.119658
-15.000808 115.232235 34.751402
-15.000808 117.744271 33.255212
-15.000808 120.256308 31.810086
-15.000808 122.768345 30.356060
-15.000808 125.280382 28.902336
-15.000808 127.792419 27.448913
-15.000808 130.304456 25.995423
-15.000808 132.816493 24.541933
-15.000808 135.328530 23.088437
-15.000808 137.840567 21.634961
-15.000808 140.352604 20.181395
-15.000808 142.864641 18.728956
-15.000808 145.376677 17.299720
-15.000808 147.888714 16.067148
-15.000808 150.400751 -0.824861
-15.000808 152.912788 4.722129
-15.000808 155.424825 8.772483
-15.000808 157.936862 7.770394
-15.000808 160.448899 8.250400
-12.273639 -83.218682 123.270925
-12.273639 -80.706645 124.196997
-12.273639 -78.194608 127.812979
-12.273639 -75.682571 126.003890
-12.273639 -73.170534 126.592977
-12.273639 -70.658497 120.831460
-12.273639 -68.146460 118.628139
-12.273639 -65.634423 118.779241
-12.273639 -63.122386 122.594290
-12.273639 -60.610349 121.452089
-12.273639 -58.098312 117.517615
-12.273639 -55.586275 111.430262
-12.273639 -53.074239 109.549902
-12.273639 -50.562202 108.028218
-12.273639 -48.050165 105.427030
-12.273639 -45.538128 113.270256
-12.273639 -43.026091 106.263961
-12.273639 -40.514054 114.942423
-12.273639 -38.002017 111.829529
-12.273639 -35.489980 98.663772
-12.273639 -32.977943 108.107241
-12.273639 -30.465906 110.467041
-12.273639 -27.953869 111.383673
-12.273639 -25.441833 102.205601
-12.273639 -22.929796 103.756875
-12.273639 -20.417759 107.833136
-12.273639 -17.905722 110.222312
-12.273639 -15.393685 111.259445
-12.273639 -12.881648 92.535041
-12.273639 -10.369611 103.524832
-12.273639 -7.857574 90.594227
-12.273639 -5.345537 92.707990
-12.273639 -2.833500 88.392652
-12.273639 -0.321463 85.806367
-12.273639 2.190573 89.580961
-12.273639 4.702610 88.607307
-12.273639 7.214647 80.854039
-12.273639 9.726684 85.719999
-12.273639 12.238721 90.816125
-12.273639 14.750758 91.230708
-12.273639 17.262795 89.644422
-12.273639 19.774832 89.680448
-12.273639 22.286869 88.101826
-12.273639 24.798906 86.998994
-12.273639 27.310943 85.588765
-12.273639 29.822980 84.133811
-12.273639 32.335016 82.679903
-12.273639 34.847053 81.226385
-12.273639 37.359090 79.772889
-12.273639 39.871127 78.319392
-12.273639 42.383164 76.865896
-12.273639 44.895201 75.412399
-12.273639 47.407238 73.958902
-12.273639 49.919275 72.505405
-12.273639 52.431312 71.051908
-12.273639 54.943349 69.598411
-12.273639 57.455386 68.144914
-12.273639 59.967422 66.691418
-12.273639 62.479459 65.237917
-12.273639 64.991496 63.784466
-12.273639 67.503533 62.330743
-12.273639 70.015570 60.878044
-12.273639 72.527607 59.421284
-12.273639 75.039644 57.974374
-12.273639 77.551681 56.512013
-12.273639 80.063718 55.073139
-12.273639 82.575755 53.592537
-12.273639 85.087792 51.850703
-12.273639 87.599829 51.094480
-12.273639 90.111865 45.820797
-12.273639 92.623902 45.202950
-12.273639 95.135939 35.064784
-12.273639 97.647976 39.110400
-12.273639 100.160013 39.014800
-12.273639 102.672050 38.785473
-12.273639 105.184087 36.124572
-12.273639 107.696124 34.374396
-12.273639 110.208161 35.040034
-12.273639 112.720198 34.169304
-12.273639 115.232235 34.097030
-12.273639 117.744271 33.560973
-12.273639 120.256308 31.839285
-12.273639 122.768345 30.352549
-12.273639 125.280382 28.901620
-12.273639 127.792419 27.447838
-12.273639 130.304456 25.993600
-12.273639 132.816493 24.539986
-12.273639 135.328530 23.086522
-12.273639 137.840567 21.633010
-12.273639 140.352604 20.179520
-12.273639 142.864641 18.724893
-12.273639 145.376677 17.257550
-12.273639 147.888714 15.809035
-12.273639 150.400751 14.332781
-12.273639 152.912788 12.660610
-12.273639 155.424825 11.407823
-12.273639 157.936862 10.132524
-12.273639 160.448899 8.629846
-9.546470 -83.218682 122.954020
-9.546470 -80.706645 126.436148
-9.546470 -78.194608 123.290711
-9.546470 -75.682571 124.573373
-9.546470 -73.170534 122.697877
-9.546470 -70.658497 122.086469
-9.546470 -68.146460 120.065883
-9.546470 -65.634423 118.520126
-9.546470 -63.122386 117.060952
-9.546470 -60.610349 117.020732
-9.546470 -58.098312 114.631255
-9.546470 -55.586275 111.938337
-9.546470 -53.074239 109.582119
-9.546470 -50.562202 108.170524
-9.546470 -48.050165 107.134040
-9.546470 -45.538128 107.529061
-9.546470 -43.026091 108.117574
-9.546470 -40.514054 113.826780
-9.546470 -38.002017 101.528195
-9.546470 -35.489980 103.758642
-9.546470 -32.977943 110.599127
-9.546470 -30.465906 111.131395
-9.546470 -27.953869 109.197229
-9.546470 -25.441833 107.355315
-9.546470 -22.929796 102.298860
-9.546470 -20.417759 107.393642
-9.546470 -17.905722 110.472800
-9.546470 -15.393685 102.608485
-9.546470 -12.881648 103.427011
-9.546470 -10.369611 99.603609
-9.546470 -7.857574 94.317917
-9.546470 -5.345537 99.297055
-9.546470 -2.833500 92.901138
-9.546470 -0.321463 88.987692
-9.546470 2.190573 91.231075
-9.546470 4.702610 89.920653
-9.546470 7.214647 89.967899
-9.546470 9.726684 91.474077
-9.546470 12.238721 92.842191
-9.546470 14.750758 91.215081
-9.546470 17.262795 90.319131
-9.546470 19.774832 89.869887
-9.546470 22.286869 88.892009
-9.546470 24.798906 87.018895
-9.546470 27.310943 85.589183
-9.546470 29.822980 84.130354
-9.546470 32.335016 82.678005
-9.546470 34.847053 81.224459
-9.546470 37.359090 79.770965
-9.546470 39.871127 78.317469
-9.546470 42.383164 76.863972
-9.546470 44.895201 75.410475
-9.546470 47.407238 73.956978
-9.546470 49.919275 72.503481
-9.546470 52.431312 71.049984
-9.546470 54.943349 69.596488
-9.546470 57.455386 68.142991
-9.546470 59.967422 66.689485
-9.546470 62.479459 65.235993
-9.546470 64.991496 63.782598
-9.546470 67.503533 62.327748
-9.546470 70.015570 60.880717
-9.546470 72.527607 59.407676
-9.546470 75.039644 58.025555
-9.546470 77.551681 56.494302
-9.546470 80.063718 55.039150
-9.546470 82.575755 53.516134
-9.546470 85.087792 51.904400
-9.546470 87.599829 50.838804
-9.546470 90.111865 49.459614
-9.546470 92.623902 47.193447
-9.546470 95.135939 46.341306
-9.546470 97.647976 41.665617
-9.546470 100.160013 43.508037
-9.546470 102.672050 42.631750
-9.546470 105.184087 44.612217
-9.546470 107.696124 44.219291
-9.546470 110.208161 40.336493
-9.546470 112.720198 40.715996
-9.546470 115.232235 31.354351
-9.546470 117.744271 29.219927
-9.546470 120.256308 30.735341
-9.546470 122.768345 31.419254
-9.546470 125.280382 28.807281
-9.546470 127.792419 27.422256
-9.546470 130.304456 25.984530
-9.546470 132.816493 24.535698
-9.546470 135.328530 23.083379
-9.546470 137.840567 21.630673
-9.546470 140.352604 20.177572
-9.546470 142.864641 18.724187
-9.546470 145.376677 17.270588
-9.546470 147.888714 15.817688
-9.546470 150.400751 14.363020
-9.546470 152.912788 12.897703
-9.546470 155.424825 11.435866
-9.546470 157.936862 10.008583
-9.546470 160.448899 8.572396
-6.819300 -83.218682 121.695804
-6.819300 -80.706645 119.803549
-6.819300 -78.194608 118.133772
-6.819300 -75.682571 123.901505
-6.819300 -73.170534 122.406249
-6.819300 -70.658497 118.937282
-6.819300 -68.146460 119.780918
-6.819300 -65.634423 118.357035
-6.819300 -63.122386 120.605359
-6.819300 -60.610349 118.563932
-6.819300 -58.098312 111.066297
-6.819300 -55.586275 110.373052
-6.819300 -53.074239 109.458402
-6.819300 -50.562202 105.738760
-6.819300 -48.050165 109.943059
-6.819300 -45.538128 106.358508
-6.819300 -43.026091 109.520793
-6.819300 -40.514054 107.937555
-6.819300 -38.002017 105.552455
-6.819300 -35.489980 100.643043
-6.819300 -32.977943 113.448548
-6.819300 -30.465906 111.039420
-6.819300 -27.953869 105.864234
-6.819300 -25.441833 102.599452
-6.819300 -22.929796 106.989858
-6.819300 -20.417759 110.801001
-6.819300 -17.905722 110.887475
-6.819300 -15.393685 99.294860
-6.819300 -12.881648 104.710258
-6.819300 -10.369611 91.427551
-6.819300 -7.857574 94.014316
-6.819300 -5.345537 91.116412
-6.819300 -2.833500 92.107857
-6.819300 -0.321463 89.534212
-6.819300 2.190573 92.284482
-6.819300 4.702610 88.638314
-6.819300 7.214647 92.681193
-6.819300 9.726684 90.859836
-6.819300 12.238721 92.752143
-6.819300 14.750758 92.952678
-6.819300 17.262795 89.923161
-6.819300 19.774832 90.027574
-6.819300 22.286869 89.226127
-6.819300 24.798906 86.781880
-6.819300 27.310943 85.582326
-6.819300 29.822980 84.126260
-6.819300 32.335016 82.675803
-6.819300 34.847053 81.222535
-6.819300 37.359090 79.769043
-6.819300 39.871127 78.315545
-6.819300 42.383164 76.862048
-6.819300 44.895201 75.408551
-6.819300 47.407238 73.955054
-6.819300 49.919275 72.501558
-6.819300 52.431312 71.048061
-6.819300 54.943349 69.594560
-6.819300 57.455386 68.141073
-6.819300 59.967422 66.687589
-6.819300 62.479459 65.233961
-6.819300 64.991496 63.780849
-6.819300 67.503533 62.330160
-6.819300 70.015570 60.852151
-6.819300 72.527607 59.540110
-6.819300 75.039644 57.438166
-6.819300 77.551681 58.381250
-6.819300 80.063718 57.113240
-6.819300 82.575755 56.029552
-6.819300 85.087792 53.971754
-6.819300 87.599829 51.555355
-6.819300 90.111865 47.725575
-6.819300 92.623902 47.147074
-6.819300 95.135939 47.061911
-6.819300 97.647976 44.523268
-6.819300 100.160013 43.820465
-6.819300 102.672050 44.679271
-6.819300 105.184087 44.201078
-6.819300 107.696124 41.098922
-6.819300 110.208161 40.818596
-6.819300 112.720198 34.461440
-6.819300 115.232235 34.633310
-6.819300 117.744271 27.517380
-6.819300 120.256308 28.549853
-6.819300 122.768345 28.812447
-6.819300 125.280382 27.701594
-6.819300 127.792419 27.183821
-6.819300 130.304456 26.050811
-6.819300 132.816493 24.426980
-6.819300 135.328530 23.085044
-6.819300 137.840567 21.630980
-6.819300 140.352604 20.176103
-6.819300 142.864641 18.722242
-6.819300 145.376677 17.268751
-6.819300 147.888714 15.815191
-6.819300 150.400751 14.361694
-6.819300 152.912788 12.908154
-6.819300 155.424825 11.454459
-6.819300 157.936862 10.001254
-6.819300 160.448899 8.566871
-4.092131 -83.218682 122.825071
-4.092131 -80.706645 127.210061
-4.092131 -78.194608 126.293774
-4.092131 -75.682571 125.311515
-4.092131 -73.170534 115.510752
-4.092131 -70.658497 123.950921
-4.092131 -68.146460 115.000600
-4.092131 -65.634423 116.599482
-4.092131 -63.122386 116.745492
-4.092131 -60.610349 116.498743
-4.092131 -58.098312 112.807501
-4.092131 -55.586275 112.761142
-4.092131 -53.074239 111.868933
-4.092131 -50.562202 114.120120
-4.092131 -48.050165 108.936168
-4.092131 -45.538128 110.404484
-4.092131 -43.026091 110.675261
-4.092131 -40.514054 103.945614
-4.092131 -38.002017 102.631764
-4.092131 -35.489980 107.029826
-4.092131 -32.977943 110.140491
-4.092131 -30.465906 110.667892
-4.092131 -27.953869 107.643747
-4.092131 -25.441833 105.764952
-4.092131 -22.929796 108.695210
-4.092131 -20.417759 100.824153
-4.092131 -17.905722 104.068361
-4.092131 -15.393685 100.338873
-4.092131 -12.881648 104.651620
-4.092131 -10.369611 100.855234
-4.092131 -7.857574 93.994318
-4.092131 -5.345537 89.431997
-4.092131 -2.833500 96.186315
-4.092131 -0.321463 90.713118
-4.092131 2.190573 88.794624
-4.092131 4.702610 86.530514
-4.092131 7.214647 87.885000
-4.092131 9.726684 93.958783
-4.092131 12.238721 92.563925
-4.092131 14.750758 91.970983
-4.092131 17.262795 89.740518
-4.092131 19.774832 90.474908
-4.092131 22.286869 87.718980
-4.092131 24.798906 85.302026
-4.092131 27.310943 85.577923
-4.092131 29.822980 84.133010
-4.092131 32.335016 82.674369
-4.092131 34.847053 81.220625
-4.092131 37.359090 79.767116
-4.092131 39.871127 78.313621
-4.092131 42.383164 76.860124
-4.092131 44.895201 75.406630
-4.092131 47.407238 73.953118
-4.092131 49.919275 72.499672
-4.092131 52.431312 71.046132
-4.092131 54.943349 69.592485
-4.092131 57.455386 68.139516
-4.092131 59.967422 66.685227
-4.092131 62.479459 65.229791
-4.092131 64.991496 63.785656
-4.092131 67.503533 62.290908
-4.092131 70.015570 60.669573
-4.092131 72.527607 61.309355
-4.092131 75.039644 59.710980
-4.092131 77.551681 58.241874
-4.092131 80.063718 56.786941
-4.092131 82.575755 55.292952
-4.092131 85.087792 54.011382
-4.092131 87.599829 52.217884
-4.092131 90.111865 53.894327
-4.092131 92.623902 50.439998
-4.092131 95.135939 46.546835
-4.092131 97.647976 45.347781
-4.092131 100.160013 46.533354
-4.092131 102.672050 47.231752
-4.092131 105.184087 44.248110
-4.092131 107.696124 44.427265
-4.092131 110.208161 42.876974
-4.092131 112.720198 40.433021
-4.092131 115.232235 40.063431
-4.092131 117.744271 42.566237
-4.092131 120.256308 33.245344
-4.092131 122.768345 34.223572
-4.092131 125.280382 27.588230
-4.092131 127.792419 23.479812
-4.092131 130.304456 24.636538
-4.092131 132.816493 24.690976
-4.092131 135.328530 24.087444
-4.092131 137.840567 21.531242
-4.092131 140.352604 20.183280
-4.092131 142.864641 18.687384
-4.092131 145.376677 17.262223
-4.092131 147.888714 15.811196
-4.092131 150.400751 14.359792
-4.092131 152.912788 12.906295
-4.092131 155.424825 11.452770
-4.092131 157.936862 9.999305
-4.092131 160.448899 8.532167
-1.364962 -83.218682 121.369178
-1.364962 -80.706645 119.827635
-1.364962 -78.194608 118.021245
-1.364962 -75.682571 120.610381
-1.364962 -73.170534 116.497675
-1.364962 -70.658497 117.082927
-1.364962 -68.146460 112.500494
-1.364962 -65.634423 112.629312
-1.364962 -63.122386 112.448428
-1.364962 -60.610349 110.806579
-1.364962 -58.098312 112.063952
-1.364962 -55.586275 113.084716
-1.364962 -53.074239 110.114150
-1.364962 -50.562202 108.237681
-1.364962 -48.050165 107.550495
-1.364962 -45.538128 109.480341
-1.364962 -43.026091 110.104678
-1.364962 -40.514054 112.990442
-1.364962 -38.002017 104.937670
-1.364962 -35.489980 109.638533
-1.364962 -32.977943 113.273845
-1.364962 -30.465906 110.935211
-1.364962 -27.953869 104.414691
-1.364962 -25.441833 101.806017
-1.364962 -22.929796 109.474529
-1.364962 -20.417759 111.760515
-1.364962 -17.905722 99.933145
-1.364962 -15.393685 109.037857
-1.364962 -12.881648 89.344072
-1.364962 -10.369611 90.768220
-1.364962 -7.857574 97.957707
-1.364962 -5.345537 98.021138
-1.364962 -2.833500 89.200551
-1.364962 -0.321463 91.861708
-1.364962 2.190573 91.414858
-1.364962 4.702610 82.383216
-1.364962 7.214647 95.032105
-1.364962 9.726684 94.017436
-1.364962 12.238721 92.175366
-1.364962 14.750758 93.092559
-1.364962 17.262795 89.619557
-1.364962 19.774832 90.223329
-1.364962 22.286869 88.401783
-1.364962 24.798906 86.942747
-1.364962 27.310943 85.612170
-1.364962 29.822980 84.123798
-1.364962 32.335016 82.672428
-1.364962 34.847053 81.218692
-1.364962 37.359090 79.765194
-1.364962 39.871127 78.311698
-1.364962 42.383164 76.858198
-1.364962 44.895201 75.404709
-1.364962 47.407238 73.951169
-1.364962 49.919275 72.497898
-1.364962 52.431312 71.043761
-1.364962 54.943349 69.590375
-1.364962 57.455386 68.137788
-1.364962 59.967422 66.683099
-1.364962 62.479459 65.231411
-1.364962 64.991496 63.765299
-1.364962 67.503533 62.370473
-1.364962 70.015570 60.656193
-1.364962 72.527607 61.379188
-1.364962 75.039644 59.626929
-1.364962 77.551681 58.463374
-1.364962 80.063718 55.398399
-1.364962 82.575755 54.799159
-1.364962 85.087792 56.841642
-1.364962 87.599829 56.079007
-1.364962 90.111865 54.362695
-1.364962 92.623902 53.124301
-1.364962 95.135939 51.447539
-1.364962 97.647976 49.060167
-1.364962 100.160013 47.136873
-1.364962 102.672050 47.375736
-1.364962 105.184087 46.003045
-1.364962 107.696124 44.392199
-1.364962 110.208161 42.803031
-1.364962 112.720198 41.402849
-1.364962 115.232235 39.686126
-1.364962 117.744271 38.848697
-1.364962 120.256308 35.019389
-1.364962 122.768345 32.058947
-1.364962 125.280382 30.098091
-1.364962 127.792419 23.466901
-1.364962 130.304456 28.630113
-1.364962 132.816493 26.527395
-1.364962 135.328530 23.434208
-1.364962 137.840567 21.534214
-1.364962 140.352604 20.224322
-1.364962 142.864641 18.315112
-1.364962 145.376677 17.540724
-1.364962 147.888714 15.815264
-1.364962 150.400751 14.357054
-1.364962 152.912788 12.904661
-1.364962 155.424825 11.451037
-1.364962 157.936862 9.997375
-1.364962 160.448899 8.524430
1.362207 -83.218682 123.678894
1.362207 -80.706645 124.661784
1.362207 -78.194608 129.402693
1.362207 -75.682571 118.315037
1.362207 -73.170534 116.695835
1.362207 -70.658497 115.102616
1.362207 -68.146460 112.952724
1.362207 -65.634423 111.549521
1.362207 -63.122386 110.416309
1.362207 -60.610349 107.501337
1.362207 -58.098312 108.849079
1.362207 -55.586275 110.854324
1.362207 -53.074239 108.696984
1.362207 -50.562202 108.099401
1.362207 -48.050165 108.033217
1.362207 -45.538128 110.803175
1.362207 -43.026091 111.078563
1.362207 -40.514054 110.473833
1.362207 -38.002017 111.187574
1.362207 -35.489980 113.016199
1.362207 -32.977943 112.930449
1.362207 -30.465906 102.868740
1.362207 -27.953869 101.871617
1.362207 -25.441833 113.536049
1.362207 -22.929796 111.082003
1.362207 -20.417759 92.758429
1.362207 -17.905722 98.581259
1.362207 -15.393685 124.410089
1.362207 -12.881648 101.870783
1.362207 -10.369611 91.424779
1.362207 -7.857574 96.180646
1.362207 -5.345537 91.539949
1.362207 -2.833500 89.958116
1.362207 -0.321463 94.325278
1.362207 2.190573 91.914420
1.362207 4.702610 92.979272
1.362207 7.214647 93.369018
1.362207 9.726684 93.914028
1.362207 12.238721 94.250236
1.362207 14.750758 92.852664
1.362207 17.262795 89.949736
1.362207 19.774832 89.905750
1.362207 22.286869 88.482421
1.362207 24.798906 87.030438
1.362207 27.310943 85.574699
1.362207 29.822980 84.124237
1.362207 32.335016 82.670141
1.362207 34.847053 81.216776
1.362207 37.359090 79.763273
1.362207 39.871127 78.309763
1.362207 42.383164 76.856307
1.362207 44.895201 75.402702
1.362207 47.407238 73.949447
1.362207 49.919275 72.494352
1.362207 52.431312 71.059290
1.362207 54.943349 69.560971
1.362207 57.455386 68.093283
1.362207 59.967422 66.837922
1.362207 62.479459 64.696721
1.362207 64.991496 63.484111
1.362207 67.503533 64.419647
1.362207 70.015570 62.478317
1.362207 72.527607 61.354028
1.362207 75.039644 59.066438
1.362207 77.551681 58.830133
1.362207 80.063718 56.865794
1.362207 82.575755 60.539653
1.362207 85.087792 57.177770
1.362207 87.599829 55.911992
1.362207 90.111865 54.420960
1.362207 92.623902 52.988356
1.362207 95.135939 51.543069
1.362207 97.647976 50.053188
1.362207 100.160013 48.627612
1.362207 102.672050 47.219540
1.362207 105.184087 45.717151
1.362207 107.696124 44.269416
1.362207 110.208161 42.809857
1.362207 112.720198 41.360479
1.362207 115.232235 39.958992
1.362207 117.744271 38.450464
1.362207 120.256308 35.381740
1.362207 122.768345 36.427154
1.362207 125.280382 34.619065
1.362207 127.792419 30.411742
1.362207 130.304456 30.981073
1.362207 132.816493 29.224492
1.362207 135.328530 23.837257
1.362207 137.840567 21.742818
1.362207 140.352604 19.944075
1.362207 142.864641 18.815307
1.362207 145.376677 16.301057
1.362207 147.888714 15.913894
1.362207 150.400751 14.362516
1.362207 152.912788 12.862142
1.362207 155.424825 11.430790
1.362207 157.936862 9.993729
1.362207 160.448899 8.541213
4.089376 -83.218682 121.431384
4.089376 -80.706645 125.446274
4.089376 -78.194608 118.543429
4.089376 -75.682571 117.356463
4.089376 -73.170534 115.996306
4.089376 -70.658497 114.538210
4.089376 -68.146460 113.079791
4.089376 -65.634423 111.627205
4.089376 -63.122386 110.168511
4.089376 -60.610349 108.718001
4.089376 -58.098312 107.335718
4.089376 -55.586275 105.850129
4.089376 -53.074239 104.740036
4.089376 -50.562202 108.478602
4.089376 -48.050165 108.226828
4.089376 -45.538128 110.164154
4.089376 -43.026091 113.470599
4.089376 -40.514054 111.867796
4.089376 -38.002017 112.689549
4.089376 -35.489980 110.192536
4.089376 -32.977943 114.752254
4.089376 -30.465906 113.971579
4.089376 -27.953869 110.980654
4.089376 -25.441833 112.139226
4.089376 -22.929796 86.745692
4.089376 -20.417759 86.613006
4.089376 -17.905722 112.632175
4.089376 -15.393685 67.738996
4.089376 -12.881648 99.048875
4.089376 -10.369611 102.327581
4.089376 -7.857574 80.274166
4.089376 -5.345537 89.695976
4.089376 -2.833500 89.970775
4.089376 -0.321463 91.520294
4.089376 2.190573 91.547696
4.089376 4.702610 91.199130
4.089376 7.214647 94.522606
4.089376 9.726684 93.879684
4.089376 12.238721 92.802476
4.089376 14.750758 92.849126
4.089376 17.262795 90.107253
4.089376 19.774832 89.870444
4.089376 22.286869 88.483475
4.089376 24.798906 87.028859
4.089376 27.310943 85.575291
4.089376 29.822980 84.121956
4.089376 32.335016 82.668313
4.089376 34.847053 81.214842
4.089376 37.359090 79.761383
4.089376 39.871127 78.307682
4.089376 42.383164 76.854837
4.089376 44.895201 75.399673
4.089376 47.407238 73.950176
4.089376 49.919275 72.500022
4.089376 52.431312 71.060556
4.089376 54.943349 68.902582
4.089376 57.455386 68.322810
4.089376 59.967422 67.486529
4.089376 62.479459 67.280671
4.089376 64.991496 65.511124
4.089376 67.503533 64.477997
4.089376 70.015570 62.584930
4.089376 72.527607 60.191012
4.089376 75.039644 63.612432
4.089376 77.551681 61.348107
4.089376 80.063718 59.125366
4.089376 82.575755 57.005397
4.089376 85.087792 56.431329
4.089376 87.599829 55.918556
4.089376 90.111865 54.441203
4.089376 92.623902 52.983538
4.089376 95.135939 51.529953
4.089376 97.647976 50.076613
4.089376 100.160013 48.622733
4.089376 102.672050 47.168567
4.089376 105.184087 45.716731
4.089376 107.696124 44.262467
4.089376 110.208161 42.808960
4.089376 112.720198 41.349725
4.089376 115.232235 39.787283
4.089376 117.744271 38.517956
4.089376 120.256308 35.448521
4.089376 122.768345 33.609608
4.089376 125.280382 34.022143
4.089376 127.792419 31.146355
4.089376 130.304456 31.339835
4.089376 132.816493 29.589413
4.089376 135.328530 27.334447
4.089376 137.840567 24.852821
4.089376 140.352604 26.818101
4.089376 142.864641 22.161893
4.089376 145.376677 16.792787
4.089376 147.888714 15.805595
4.089376 150.400751 14.343316
4.089376 152.912788 13.549511
4.089376 155.424825 12.022948
4.089376 157.936862 9.988904
4.089376 160.448899 8.509996
6.816546 -83.218682 120.767711
6.816546 -80.706645 116.750265
6.816546 -78.194608 122.512048
6.816546 -75.682571 111.435468
6.816546 -73.170534 115.352722
6.816546 -70.658497 114.607048
6.816546 -68.146460 113.076913
6.816546 -65.634423 111.623228
6.816546 -63.122386 110.171144
6.816546 -60.610349 108.718243
6.816546 -58.098312 107.273874
6.816546 -55.586275 105.795024
6.816546 -53.074239 104.285386
6.816546 -50.562202 101.462512
6.816546 -48.050165 101.724653
6.816546 -45.538128 113.690098
6.816546 -43.026091 108.219191
6.816546 -40.514054 111.072113
6.816546 -38.002017 109.770224
6.816546 -35.489980 113.293213
6.816546 -32.977943 112.148871
6.816546 -30.465906 114.796119
6.816546 -27.953869 109.003473
6.816546 -25.441833 139.210537
6.816546 -22.929796 94.566495
6.816546 -20.417759 94.621187
6.816546 -17.905722 87.059502
6.816546 -15.393685 99.575631
6.816546 -12.881648 81.130699
6.816546 -10.369611 84.191101
6.816546 -7.857574 93.474202
6.816546 -5.345537 90.761413
6.816546 -2.833500 93.210563
6.816546 -0.321463 91.595202
6.816546 2.190573 86.198848
6.816546 4.702610 93.137752
6.816546 7.214647 95.277832
6.816546 9.726684 93.691564
6.816546 12.238721 92.702461
6.816546 14.750758 92.739521
6.816546 17.262795 91.245012
6.816546 19.774832 89.973791
6.816546 22.286869 88.476567
6.816546 24.798906 87.025961
6.816546 27.310943 85.573218
6.816546 29.822980 84.119906
6.816546 32.335016 82.666422
6.816546 34.847053 81.212905
6.816546 37.359090 79.759377
6.816546 39.871127 78.306292
6.816546 42.383164 76.850821
6.816546 44.895201 75.405178
6.816546 47.407238 73.925326
6.816546 49.919275 72.547802
6.816546 52.431312 71.168953
6.816546 54.943349 69.134691
6.816546 57.455386 70.429637
6.816546 59.967422 68.185420
6.816546 62.479459 67.427390
6.816546 64.991496 64.860674
6.816546 67.503533 66.408448
6.816546 70.015570 64.612899
6.816546 72.527607 65.007931
6.816546 75.039644 62.933499
6.816546 77.551681 61.069607
6.816546 80.063718 57.981766
6.816546 82.575755 56.543852
6.816546 85.087792 54.981040
6.816546 87.599829 55.852104
6.816546 90.111865 54.448506
6.816546 92.623902 52.981300
6.816546 95.135939 51.528000
6.816546 97.647976 50.074501
6.816546 100.160013 48.621002
6.816546 102.672050 47.167542
6.816546 105.184087 45.714072
6.816546 107.696124 44.260445
6.816546 110.208161 42.806978
6.816546 112.720198 41.354783
6.816546 115.232235 39.905849
6.816546 117.744271 38.449211
6.816546 120.256308 37.036135
6.816546 122.768345 35.358938
6.816546 125.280382 34.570452
6.816546 127.792419 32.330746
6.816546 130.304456 32.696399
6.816546 132.816493 29.725145
6.816546 135.328530 28.191863
6.816546 137.840567 27.217662
6.816546 140.352604 25.297498
6.816546 142.864641 24.444455
6.816546 145.376677 17.819418
6.816546 147.888714 20.414354
6.816546 150.400751 12.945036
6.816546 152.912788 13.681764
6.816546 155.424825 12.502138
6.816546 157.936862 8.838599
6.816546 160.448899 8.198634
9.543715 -83.218682 123.287721
9.543715 -80.706645 121.672612
9.543715 -78.194608 120.767684
9.543715 -75.682571 125.742707
9.543715 -73.170534 113.628553
9.543715 -70.658497 114.631697
9.543715 -68.146460 113.067936
9.543715 -65.634423 111.632832
9.543715 -63.122386 110.167402
9.543715 -60.610349 108.717182
9.543715 -58.098312 107.263398
9.543715 -55.586275 105.786277
9.543715 -53.074239 104.335368
9.543715 -50.562202 103.374360
9.543715 -48.050165 100.473397
9.543715 -45.538128 101.765141
9.543715 -43.026091 99.304662
9.543715 -40.514054 101.897701
9.543715 -38.002017 107.291809
9.543715 -35.489980 112.138304
9.543715 -32.977943 111.112731
9.543715 -30.465906 109.528814
9.543715 -27.953869 112.608863
9.543715 -25.441833 73.125905
9.543715 -22.929796 101.125948
9.543715 -20.417759 100.201875
9.543715 -17.905722 97.609406
9.543715 -15.393685 98.207587
9.543715 -12.881648 85.115516
9.543715 -10.369611 83.576585
9.543715 -7.857574 86.831868
9.543715 -5.345537 87.344337
9.543715 -2.833500 96.090170
9.543715 -0.321463 92.581292
9.543715 2.190573 92.930673
9.543715 4.702610 97.306973
9.543715 7.214647 95.449337
9.543715 9.726684 95.004800
9.543715 12.238721 92.564536
9.543715 14.750758 91.964629
9.543715 17.262795 81.628686
9.543715 19.774832 88.143262
9.543715 22.286869 88.471375
9.543715 24.798906 87.029674
9.543715 27.310943 85.572144
9.543715 29.822980 84.117848
9.543715 32.335016 82.665278
9.543715 34.847053 81.209351
9.543715 37.359090 79.759382
9.543715 39.871127 78.315414
9.543715 42.383164 76.811695
9.543715 44.895201 75.503345
9.543715 47.407238 73.384148
9.543715 49.919275 74.386754
9.543715 52.431312 72.725223
9.543715 54.943349 71.303117
9.543715 57.455386 69.904245
9.543715 59.967422 68.294073
9.543715 62.479459 66.960180
9.543715 64.991496 69.733302
9.543715 67.503533 67.545181
9.543715 70.015570 65.960407
9.543715 72.527607 64.663387
9.543715 75.039644 63.157038
9.543715 77.551681 61.946692
9.543715 80.063718 60.712136
9.543715 82.575755 59.267197
9.543715 85.087792 57.115877
9.543715 87.599829 55.912588
9.543715 90.111865 54.432104
9.543715 92.623902 52.979586
9.543715 95.135939 51.526079
9.543715 97.647976 50.072577
9.543715 100.160013 48.619069
9.543715 102.672050 47.165577
9.543715 105.184087 45.712080
9.543715 107.696124 44.258588
9.543715 110.208161 42.805097
9.543715 112.720198 41.351546
9.543715 115.232235 39.898267
9.543715 117.744271 38.443606
9.543715 120.256308 36.990174
9.543715 122.768345 35.533399
9.543715 125.280382 34.071663
9.543715 127.792419 32.217477
9.543715 130.304456 30.968011
9.543715 132.816493 29.650291
9.543715 135.328530 28.269046
9.543715 137.840567 26.874746
9.543715 140.352604 25.424578
9.543715 142.864641 24.065223
9.543715 145.376677 20.673256
9.543715 147.888714 20.103969
9.543715 150.400751 16.744013
9.543715 152.912788 15.619771
9.543715 155.424825 13.946759
9.543715 157.936862 8.811942
9.543715 160.448899 9.041106
12.270884 -83.218682 125.052808
12.270884 -80.706645 123.772947
12.270884 -78.194608 125.051089
12.270884 -75.682571 118.286570
12.270884 -73.170534 119.686670
12.270884 -70.658497 116.513928
12.270884 -68.146460 115.735129
12.270884 -65.634423 111.530346
12.270884 -63.122386 109.866951
12.270884 -60.610349 109.139051
12.270884 -58.098312 107.645344
12.270884 -55.586275 106.252935
12.270884 -53.074239 98.735017
12.270884 -50.562202 112.810180
12.270884 -48.050165 106.780619
12.270884 -45.538128 105.723982
12.270884 -43.026091 111.560296
12.270884 -40.514054 95.470289
12.270884 -38.002017 99.864061
12.270884 -35.489980 106.436959
12.270884 -32.977943 111.465223
12.270884 -30.465906 111.539576
12.270884 -27.953869 112.259768
12.270884 -25.441833 121.264954
12.270884 -22.929796 102.897975
12.270884 -20.417759 88.283969
12.270884 -17.905722 80.238532
12.270884 -15.393685 97.605480
12.270884 -12.881648 90.918281
12.270884 -10.369611 100.207905
12.270884 -7.857574 89.123575
12.270884 -5.345537 90.167262
12.270884 -2.833500 94.055742
12.270884 -0.321463 91.900947
12.270884 2.190573 96.355472
12.270884 4.702610 97.448924
12.270884 7.214647 95.096917
12.270884 9.726684 95.855675
12.270884 12.238721 92.724832
12.270884 14.750758 93.129913
12.270884 17.262795 90.961279
12.270884 19.774832 90.395921
12.270884 22.286869 88.370908
12.270884 24.798906 87.024797
12.270884 27.310943 85.569612
12.270884 29.822980 84.115265
12.270884 32.335016 82.664831
12.270884 34.847053 81.201994
12.270884 37.359090 79.765015
12.270884 39.871127 78.297686
12.270884 42.383164 76.877422
12.270884 44.895201 75.364380
12.270884 47.407238 76.062383
12.270884 49.919275 74.206582
12.270884 52.431312 72.849372
12.270884 54.943349 69.369179
12.270884 57.455386 70.217412
12.270884 59.967422 71.706295
12.270884 62.479459 68.541274
12.270884 64.991496 68.639820
12.270884 67.503533 67.627983
12.270884 70.015570 66.048886
12.270884 72.527607 64.569939
12.270884 75.039644 63.152197
12.270884 77.551681 61.699831
12.270884 80.063718 60.226192
12.270884 82.575755 58.796642
12.270884 85.087792 57.361579
12.270884 87.599829 55.872003
12.270884 90.111865 54.433511
12.270884 92.623902 52.976772
12.270884 95.135939 51.522266
12.270884 97.647976 50.071084
12.270884 100.160013 48.617208
12.270884 102.672050 47.163635
12.270884 105.184087 45.710159
12.270884 107.696124 44.256662
12.270884 110.208161 42.803163
12.270884 112.720198 41.349663
12.270884 115.232235 39.896170
12.270884 117.744271 38.442674
12.270884 120.256308 36.989955
12.270884 122.768345 35.590228
12.270884 125.280382 34.172270
12.270884 127.792419 32.681366
12.270884 130.304456 31.192482
12.270884 132.816493 29.718970
12.270884 135.328530 28.267026
12.270884 137.840567 26.775083
12.270884 140.352604 24.525864
12.270884 142.864641 21.301630
12.270884 145.376677 20.624476
12.270884 147.888714 20.002550
12.270884 150.400751 19.504581
12.270884 152.912788 20.543253
12.270884 155.424825 19.169900
12.270884 157.936862 14.442564
12.270884 160.448899 9.110957
14.998053 -83.218682 125.200286
14.998053 -80.706645 129.578143
14.998053 -78.194608 127.286994
14.998053 -75.682571 125.612994
14.998053 -73.170534 124.368616
14.998053 -70.658497 120.125005
14.998053 -68.146460 117.872681
14.998053 -65.634423 112.925903
14.998053 -63.122386 111.269360
14.998053 -60.610349 110.300007
14.998053 -58.098312 112.525226
14.998053 -55.586275 109.403672
14.998053 -53.074239 106.579441
14.998053 -50.562202 108.824869
14.998053 -48.050165 99.955043
14.998053 -45.538128 102.586317
14.998053 -43.026091 98.474786
14.998053 -40.514054 109.311868
14.998053 -38.002017 98.281714
14.998053 -35.489980 108.920526
14.998053 -32.977943 100.895197
14.998053 -30.465906 106.183030
14.998053 -27.953869 107.110244
14.998053 -25.441833 107.427790
14.998053 -22.929796 104.033903
14.998053 -20.417759 109.256784
14.998053 -17.905722 94.094646
14.998053 -15.393685 91.035041
14.998053 -12.881648 91.245555
14.998053 -10.369611 82.531099
14.998053 -7.857574 90.920129
14.998053 -5.345537 93.471731
14.998053 -2.833500 94.406967
14.998053 -0.321463 92.906206
14.998053 2.190573 96.328056
14.998053 4.702610 96.595461
14.998053 7.214647 95.302787
14.998053 9.726684 95.771157
14.998053 12.238721 93.125036
14.998053 14.750758 93.073348
14.998053 17.262795 91.370785
14.998053 19.774832 89.919375
